# 3D point list with one line of data per point:
#   POINT3D_ID, X, Y, Z, R, G, B, ERROR, TRACK[] as (IMAGE_ID, POINT2D_IDX)
# Number of points: 318, mean track length: 7.9023071072424571
2850 2.3065271903012707 1.0683381023954084 1.9994078117882279 57 52 44 2.2599291114883537 20 1399 29 1299 75 3290
2862 1.9150965045069803 1.0482037062368155 2.4142055411497347 87 81 67 1.0453519356241638 23 516 36 911 38 1758 28 500 26 523 33 411 22 353 25 1087 27 984 37 1751 74 324 24 325 35 389 39 568 79 421 40 2715 29 1008 30 363 32 422 34 326 21 1379 81 692 78 1277 80 572 75 362 21 2800 84 398 87 406 38 332 93 3460 97 4118
2865 2.2347744827370084 1.0521467920886309 2.1367585164551648 49 45 38 2.9032882506216549 20 1267 21 1400
2873 2.4755027888067564 1.0410821249288389 1.9022562251760005 210 181 109 0.096681279043828297 19 868 21 1421
2874 2.1194193712478593 1.0480319353226188 2.1843867358017039 128 92 63 0.37085866117948046 23 1074 26 1050 35 1388 27 2176 81 1352 31 1062 34 1017 24 1251 33 1304 28 775 32 1048 21 1422 25 1363 29 2788 74 793 39 1299 30 1635 75 1885 80 2576 78 1492
2876 2.3209797885383119 1.0470641153003606 1.9617255321991358 194 182 143 1.793067948408309 21 1428 20 1395 27 2157 28 1449 81 2324 20 1886
106641 1.9019616615613966 1.0166024901184099 2.5940647355335522 144 136 130 1.620980685676449 38 3237 42 2191 36 1834 85 2632 41 1514 43 1932
2879 2.21606520442274 1.0483129558112467 2.0722865309779337 58 51 44 1.2283470086415167 21 1432 29 1433 25 1394 27 1013 19 1405
2881 2.1206307414833496 0.89239344622304884 2.1995318800498382 216 187 111 0.84606781279983301 20 1599 29 1497
43979 2.4560720744523965 1.1285851176576596 1.8756449156158399 71 68 64 0.27358496116045367 19 3135 6 1800 7 1827
106238 1.8636524170644275 0.96620552195430565 2.5270464296579678 12 12 12 0.32757208312576069 88 964 85 670
2473 2.4185865763555401 0.91852776901601629 2.2374467110741039 221 195 122 0.12193956271605891 20 3188 19 2803
2887 2.1129931829942543 0.81536866100740391 2.3275497195454364 222 195 141 1.1335134448545894 27 750 28 1247 21 1493 26 1067 29 2240
13165 2.2420661965138362 1.0311682979737371 2.0463764601677856 202 191 148 0.85579508894248291 33 1642 34 1585 79 1916
96177 1.8767357196488337 0.43766210456754706 2.7249991323195384 40 39 37 1.412676274124369 51 914 56 1929 5 1161 63 1146
106658 1.9958903933390268 1.0106794714966845 2.6523563780736374 118 113 111 1.6491307065233201 37 3123 38 3358 85 2703
2893 2.0283794250832683 0.87394779835064307 2.2775384763658129 224 200 123 0.17211104383886044 27 1534 21 1523 29 1530 28 3218
2895 2.3833835539144732 0.88376648997228979 1.9326730132933732 58 54 50 0.60694967459092963 21 1530 27 1540 20 1505
13171 2.2004560549639733 1.0227641932949818 2.0884795038286539 208 198 153 1.3061460919923604 34 1539 79 1977 37 1901 38 1222
2898 2.0024624050463533 0.86906566961466458 2.303932914280828 232 213 152 0.28306352750986041 27 811 21 1542 28 823 31 784
2901 2.1207799866274786 0.88793434338041632 2.1798425514133664 230 213 154 0.17770714085166894 20 2090 21 1551 29 1466 27 1564 25 1580
2903 2.0569072858364481 0.87997363531201767 2.2475416800619752 228 205 137 0.2194142964143162 20 1500 21 1562 29 833 27 816 25 673
85917 2.0327278653001253 0.71931930372002373 2.3953721523216243 195 169 118 1.2093413007374969 64 772 71 824 66 383
2905 1.9693260662966532 0.85651488153958943 2.3399381357079165 244 234 195 0.1355563880141073 20 1540 21 1568 29 1753
13181 2.1932714524790669 1.0211552726745758 2.1051083630474108 209 202 155 0.080416435081243437 33 1606 34 1535
2909 2.0101852456402738 0.86570351848516813 2.2927858723488148 231 212 148 0.35404787789501241 21 1593 29 1511 27 1641 25 1453
2910 2.3652554470200124 0.871747907429547 1.9846235888280481 128 113 86 0.74864698547922759 20 774 21 1598
44419 2.4331306374773298 1.1322734496430034 1.8757998654120285 201 200 197 1.457277569855276 6 591 2 987 7 1128
2913 1.9758136670451278 0.85843594515426835 2.3317682880267023 240 228 183 0.16989076565819411 20 2362 27 1661 21 1608 31 1165
2915 2.584748726150254 0.94477955049556062 2.0155234497520347 181 133 69 1.7628002520196469 20 371 21 1612 29 2962 25 1743 27 1143
2932 2.2878238597395097 0.96751070280832141 2.0023365860949136 196 168 119 0.49138615951039916 20 1179 21 1670 29 1698
85948 1.9310389451164078 0.21673996349082661 2.6350143369217349 227 198 112 0.80026294486796823 66 490 72 507 64 381 71 333 65 443 17 625 1 821 61 331 3 691 73 470 68 532 10 1201 4 520 63 280 89 465 13 1379 5 1693 62 318 67 470 9 512
2936 2.0256186767491848 0.96116458591171416 2.2606097115684221 169 127 74 1.0419697696328585 20 1697 21 1698 81 3214
2941 2.162225171570864 0.90112011423735816 2.1389986699685126 219 193 118 0.28162795255773421 20 1739 21 1731 29 1484 27 653 25 691
2943 2.1060010979893149 0.90279712079444274 2.1728508062621752 36 30 26 1.8545827586454235 19 1479 21 1740
2946 1.8692361534368849 0.92425108352598639 2.4290081788752227 163 128 84 0.58008479473754504 20 2950 21 1746 29 2907 28 2326 27 2384 25 2841 31 2469
85962 1.8839212553110749 0.30870812653396662 2.6852624248105692 226 222 202 0.75547803910493061 64 347 71 324 66 541 10 2317 17 287
44462 2.5708098718466581 1.0695809304640733 1.9878965878065875 166 119 56 0.95961739760818454 6 649 2 1174 7 658 15 3235
2956 2.4809799018190746 1.1404832062286454 1.9002345521855359 235 235 230 0.41425279729360659 27 1941 21 1808 28 1825
2960 2.1958030116248755 1.1364515373895874 2.1328670439567823 78 71 57 0.35747199438320032 20 3265 21 1849 29 1885 25 1818
106725 1.9640283490379791 0.89641881938580315 2.5904482296511859 217 195 130 0.70033326749759806 38 2408 85 2917
85972 1.9326598463378171 0.46895212160356303 2.5488741274330735 169 126 69 1.3625187421530558 68 1067 73 1788 65 1377 66 615 64 1193 71 520 10 1252 67 581 94 3593 86 1122
2963 2.2491742981667655 1.0730299962437504 2.0512669795707597 149 113 68 0.56789598918413786 22 1046 23 911 26 606 36 772 38 502 28 893 34 1060 79 2013 31 579 35 1006 27 1063 84 1495 87 1207 74 2448 33 1074 24 890 30 582 39 1458 25 1317 21 1880 37 571 75 928 80 2691 97 734
2965 1.9021976909964533 0.9622626541230167 2.3973476033755285 222 216 166 1.0395318954102055 27 1367 21 1887 29 3055
2969 2.0649312753743758 0.99135454538744106 2.2288748250200356 200 183 127 0.16254808301765908 20 2735 27 1271 21 1902 29 1265 25 1260 28 1458 31 1570
44475 2.6076474726327499 1.0318143898272614 2.0302955019799134 208 185 124 1.9842788800167024 7 1735 14 1024 6 704 18 2816 2 675 2 1212 69 2139
2971 1.8920001892827671 0.93011572280335841 2.4001857371824347 151 103 53 2.1562612526588154 27 1112 29 1565 75 2166 21 1926 74 1471 25 1649 28 1533 23 2261
44477 2.5594368503036393 1.0529053936637547 1.9832088154089123 189 151 78 1.2849647678398026 11 799 14 837 20 1782 21 1262 19 1024 15 1001 19 3444 2 1220 7 665 70 1048 27 3672 18 2961 28 2585 77 1090 69 1293
2980 2.4428815787222478 1.096148538640245 1.8777676995591337 69 42 23 0.97374698633290191 27 1800 28 1993 81 997 31 3298 21 1963 23 2931 78 970 80 3881
96274 2.1460799515124531 1.001754868325019 2.1462122911746819 0 0 0 1.8212160084624696 23 2260 22 1603 23 1271 24 2501 26 2917 74 927 33 1015 34 1003 36 689 38 659 79 1122 84 1014 87 724 97 1847 32 980 74 2127 81 4277 78 1200 81 1540 35 694 39 700 39 3047 37 1894 30 932 31 2986 36 3045 75 3310 29 715 75 2997 75 1147 80 1193 36 1097 38 1938
13262 2.3555374558092561 1.1332320022302487 1.971154065855989 191 186 174 1.2788304427903598 35 2864 36 2820 33 2803 34 2700 39 2612
86001 2.0900163882958411 0.76494511732614523 2.363346148298286 222 222 226 0.48583943624218168 71 845 66 742 72 1237 67 1162
106754 1.8982486220143959 0.96839499341720936 2.5773132166247925 56 52 42 1.0648902659046144 85 716 40 778 41 755 88 966 36 777 39 2007 83 641
2989 2.5969398608038663 1.0793471467585893 2.0314959071857284 159 130 84 0.12701794861975657 19 997 21 2004
2992 2.6003370508357686 1.0968341953911995 2.0679681879401621 159 96 39 1.0436242304387036 21 2018 19 1175
86004 2.0833645067556357 0.24965236708657279 2.86255027763091 57 71 90 0.2537317300637188 66 745 64 1237 71 870 67 433 72 767
106757 2.3946696659295608 0.85326012252447681 2.136997116503943 174 166 143 1.4406910282072536 37 792 97 525 82 253 41 397 40 287 38 1423 85 181 42 345
86010 2.0577592701635599 0.24972849369906924 2.8480013763656702 0 0 0 0.98173044328428616 66 761 68 1846 71 3442 73 1645 10 1070
106763 2.4003546554608706 0.85741917335155082 2.0608708295937443 203 196 180 2.3302873940881907 39 1276 33 2277 35 1888 87 497 84 861 36 1671 38 1383 35 738 39 445 79 1426 82 778 84 854 41 1073 97 766 87 1891 36 466 38 412 40 661 37 715 32 2129 34 2222 34 713 85 631 42 1175 32 1908 97 349 83 567
3007 2.2539403236373063 0.85856177064657135 2.061975487149585 86 78 62 0.032838342392484086 27 3062 21 2142
13283 2.2630385152164898 1.0355185294135933 2.0264333387035833 200 190 146 0.48727039331270705 35 1576 79 3386
3014 2.1376295130423113 0.8914358836615931 2.1651030805913836 224 199 127 0.21703303427110532 20 1490 21 2211 29 1458 27 1569 25 3209
106779 1.9315948236482712 0.93929892376077018 2.5992737943081892 193 145 59 1.7990617891874294 37 552 85 648
106784 2.1334461618103693 0.81156573050408498 2.3519920438868107 213 189 138 1.3154738881692225 37 1454 38 2917 40 1400 97 3702 84 628 82 2993 88 2998 42 1559 85 894
3019 2.1256863738454541 0.83587467659879666 2.2089035351992177 70 62 47 0.066599038566235183 20 2074 21 2245
3020 2.1291086098911762 0.82954065278405131 2.31187400335538 123 106 79 0.05420669518084853 27 2715 21 2246
44527 2.4647439863457117 1.0227793157347476 1.8931210587512621 191 171 155 1.6056221421101107 29 2651 20 2891 27 3720 2 1386 18 2859 15 3129 25 2737 28 3551 20 2893 76 2918
86033 1.9752689703920023 0.24520102531401178 2.8153289929665344 213 208 184 0.48303312116722963 12 1013 66 823 8 295 72 475 9 478 67 428
96311 1.9552300112384247 1.0864814520531845 2.510644380860005 108 108 109 0.41253552280751604 53 2432 56 2294 55 955
13299 2.1818368999733 1.019598255058455 2.1113792350143914 209 201 154 0.4383343094702713 79 3532 37 1877
13300 2.2598874685327921 1.057117942793683 1.999697852861245 0 0 0 0.60020193083375872 35 1174 36 1100
3027 2.1403054838772326 0.89636985427332772 2.1427369959710583 215 183 108 1.7830449044194734 28 2529 27 2396 21 2302 20 3035
3029 2.1479766618533622 0.89777798432206513 2.1537698110998118 217 187 110 0.19445231615944553 20 3039 21 2306 29 2520 25 2254
106794 2.4472134604942082 0.85825141967441065 1.9902510578553825 255 255 255 0.7918452854322775 88 1492 85 1164
86041 1.9045516050869458 0.41525866727405647 2.6206984933531388 211 206 175 0.55333606561982007 64 1058 71 1086 5 2727 63 1096 65 3839 12 1363 62 2049 66 852 68 984 73 829 61 2362 54 1111 59 1951 4 1273 96 700 99 1866 55 1784 58 1826 91 2346
96315 1.9463864133718041 0.99251088059491632 2.5558151660074611 105 76 46 0.14985321796145526 1 2269 56 2311 58 1910
13303 2.3933223859031938 1.1246816821631584 1.9142234127436761 97 59 35 1.7639825148622472 79 3555 30 1733 25 3161 33 2719 33 2714 34 2535 23 2610 32 2720 29 3213 87 4705 75 2850 74 2531 39 2688 80 3933
3032 1.9316902845168231 0.89310960203413758 2.4008382945863516 124 115 96 0.69931300510751737 21 2325 31 2366
86044 1.9014117378932671 0.43097630977823598 2.6304038419615257 192 150 72 1.3568989424768696 16 1396 66 857 3 1156 64 1066 5 631 59 389 95 1020 91 538 54 416 67 788
3038 2.1011641227642084 0.88422162719778641 2.2045126279132492 229 206 143 0.97081954323015518 21 2355 29 2496 25 2291 27 1591
13312 2.2261401728293446 1.0201745279825354 2.0416527007328198 203 192 149 1.3879399512877473 79 3628 84 3657
3044 2.2400887344207678 0.90589013208485603 2.0611864311399537 232 217 168 0.20288540781268491 20 2939 21 2377 29 1952
106818 2.0665991142340379 0.95158879932998008 2.3184496502803436 0 0 0 0.054154337347893051 46 1199 47 1378
86065 2.5590831376965997 1.0266796962629574 1.9791079270869907 0 0 0 0.73504725295655238 2 246 15 290 19 291 6 139 18 518 69 320
3054 2.0794289431521613 0.87996259876620286 2.2314105059295639 225 200 136 0.79523252746560524 20 2990 21 2415 29 2545
13328 2.2639933921255264 1.0799351223728775 2.0452085431034912 51 35 28 1.7298754002764092 34 1288 36 608 79 744 35 1029 33 1431 39 978 30 1588
13334 1.8627881875194474 0.92167591827146278 2.4762334791447316 194 147 83 1.1471320492701291 79 3109 32 1696 34 1531 36 2651 38 3413 84 4408 87 2865 97 4215 74 2320 35 2777 39 1422 30 1181 24 1959 33 2966 37 1929 82 1058 40 1174 88 1900
3061 1.9970127448396384 0.86320060024936796 2.3167204402364381 232 211 150 0.81486812665005937 27 3095 29 2435 21 2456 20 2334
106826 1.9192323005308902 0.99906262045526595 2.6163187993358532 183 179 177 2.3751527994430002 37 3119 85 2585 83 1950
3069 1.9238622614094234 0.85394283292461615 2.3920821235325409 158 134 95 1.0093362745184036 31 773 26 499 28 1724 27 1611 29 2469 23 450 21 2491 22 817 24 567 23 2519
86096 1.9900581397749022 0.24637893363341701 2.826084606511984 198 159 76 1.5014998947817548 64 2644 71 1150 10 646 66 1013 67 1556
13359 1.8989688842378265 0.92798126410603032 2.4013856795447812 62 52 36 0.70179596858404336 81 3592 87 4336 74 2336 26 2782 23 2255 24 1051 33 1494 34 2899 31 3189 35 2749 39 1387 97 4038 79 3099 30 2140 80 3586 36 1439
96371 1.9229771162349687 0.80164943499722541 2.6321832303318322 108 78 51 0.62911863657595934 62 1091 89 2847 59 1963 56 2484 49 2421
44593 2.4710474620492264 1.1332582799397379 1.886536620648894 140 134 125 0.093863761286017047 11 2238 15 2985 2 1708
3088 2.1758580757920423 1.0355876282403742 2.1051980287016461 54 50 41 0.27116312189310532 21 2604 29 2573
44594 2.4679640479676017 1.135351069203294 1.8877549945046324 58 55 52 1.659908787764323 28 2053 31 2410 26 2993 15 2993 27 3459 22 2938 23 1550 2 1710 11 2226
3090 2.5882907232538441 1.0215033355789918 1.9998083789342074 142 120 74 1.748963861411748 27 2062 21 2625 25 2572 29 1187 28 2950 26 1499 20 2877 20 2873 28 2946 31 3029 76 3072 77 1147 78 1442
3092 2.5681308834990006 1.0091423651113753 1.9833771904440876 117 100 66 2.3713795967806046 20 2832 21 2627
3096 2.2577008524523854 1.0019517920259726 2.0288872357771361 199 194 163 0.72312808119180771 33 707 35 1655 39 730 87 1824 23 1306 24 870 84 1163 34 1738 22 1004 36 1250 26 667 27 2046 28 1018 79 1102 97 2801 39 2970 21 2644 29 1250 31 679 81 1105 93 685 74 953 25 1272 32 676 30 697 78 1375 75 1163 80 995 82 1847 88 2752
3099 2.0321955961818188 1.0050459144405559 2.2656771614538203 189 180 155 0.098892821496585293 20 2613 21 2651 29 3031
13376 1.9880223846717098 0.97076459330805731 2.3279929733905047 196 140 55 1.6411302271867956 33 762 37 992
33923 2.4620775173615947 1.0376571467315334 1.8936881176768501 62 51 39 1.0007702800986487 18 2799 2 2000 7 1604 14 2515 15 3034 6 1479 19 3226
13377 2.397493061287356 0.86130740363176062 2.0551924740643868 198 191 176 0.10963465019340862 74 748 79 1471
34130 2.2334406658463313 1.0939113081186949 2.0809348783600257 0 0 0 1.7221583109962828 26 2035 35 1359 27 783 28 868 36 2843 33 2796 23 880 29 3611 25 1956 34 2668 23 1576
3104 2.2119520863375097 0.99631390177330004 2.0754019083223612 185 142 72 0.46700600388729896 38 2200 87 1729 29 3075 19 2542 23 1317 79 1897 84 1624 22 1002 35 1658 36 3093 39 1231 26 1529 21 2661 93 1712 74 959 24 875 33 1475 25 1258 28 1679 31 1611 32 1620 34 1477 30 1057 80 1551 75 1144 82 3051 40 2589 88 3011
3112 1.9656291895748506 1.060109196900801 2.3664496030890052 188 180 164 1.5759524389199782 28 2744 26 2648 27 3663 25 2620 21 2723 22 2577 24 1597 75 955
44618 2.4644202475291275 1.1169941440178923 1.880238754543976 188 185 177 0.29489445469829922 6 1970 2 1780 7 1781
3115 2.0170525614175934 1.0624631886168305 2.3125925409499684 105 76 46 0.18131402490300907 20 3683 21 2731 29 2394 25 2631
3119 2.0183962099051413 1.0667496784047397 2.3031059784167298 216 213 199 0.29288240287014239 21 2757 29 2755 28 2778 27 3920
3129 2.3399228988479379 1.0442210236857195 1.9305186837679886 141 127 92 1.091597456925905 21 2805 29 2610 27 3583 25 2514 28 2669
44222 2.4923438568086906 1.0801032277550844 1.9195797914136521 106 104 101 0.69252149223072579 77 77 76 45 78 116 69 57 70 52 81 129
85728 2.1795974127245992 0.94398375809921153 2.3349637446414717 80 75 71 0.58671792215461516 68 734 73 726 64 756 71 785 89 441 65 671 62 663 96 503 63 714 66 695 72 1161 95 510 50 727 67 1848 92 592 98 449 60 547 46 446 47 436 45 468 91 504 94 464 99 501 1 1023 61 613 90 459 48 395 86 945
3130 2.1157507656572947 1.0477010800740929 2.1873833776434704 146 107 70 0.68607917589717238 22 2699 36 2844 23 2976 21 2808 38 3371 28 2559 27 3609 79 2917 24 2386 33 2665 32 2724 35 2872 30 2761 25 2516
44636 2.5739008978130826 1.1416540507129671 2.0119187823905658 172 164 152 1.4752289692343656 6 580 7 1763 2 1822 11 2190
3134 2.6080724568589395 1.0413772855527192 2.0281653162143383 157 73 70 1.7276009509171368 15 3279 14 1064 21 2834
3152 2.2586283617639755 0.95009090867160595 2.0422622804687127 168 159 153 1.7131519736475003 21 2915 29 2935 27 2297 28 2399
3153 2.5808483127286448 0.94468443802494007 2.0034698518015062 200 143 71 1.4329017602088825 27 648 29 1740 21 2917 25 730 31 2431 28 3210
3156 2.252897580720965 0.94340210836695548 2.0423568323530308 189 140 82 1.6081033974588324 93 1048 28 2408 74 1910 21 2929 29 1615 87 1556 19 1661 38 2816 70 2183 97 1723 77 1403 78 1168 80 1993 76 627 40 3108
13431 1.93563453752468 1.0448253385836119 2.3896587058507239 53 49 41 1.2541372755725562 40 254 37 234 38 187 41 770
96443 1.9245622608024167 0.78063989604426653 2.5408736455942158 173 161 130 1.5773838358354644 53 998 71 671 64 2613 64 1541 3 991 95 1738 96 1280 98 1021 73 1826 13 1040 50 621 52 1026 60 1047 95 1733 49 515 56 509 5 914 58 310 4 839 73 1824 5 916 92 2683 57 617 48 3132
3158 1.8732530148967594 0.94545280371844609 2.4301578732967473 107 78 53 0.40316039126636305 26 533 31 594 36 398 27 650 28 723 22 363 23 404 24 288 25 1683 32 406 34 391 29 1718
106923 2.0541935783397629 0.89504109451906466 2.3989355770718834 227 209 148 1.5982329203301306 88 2712 83 220
44664 2.4477904646255082 1.0632194558202661 1.8761302792729739 210 183 127 1.5883631715598334 21 1326 80 2655 26 1254 27 2101 81 2053 28 1289 29 2702 23 1968 18 2964 78 2002 69 2046 14 2455
3160 2.2806204885546877 0.91524850666461877 2.0192321595742029 224 203 140 0.55463302329343822 21 2947 29 1601 25 2358 20 2969
3162 2.27366617576152 0.91418133459806317 2.0244834747428309 213 186 119 0.19012174619014896 20 3914 21 2954 29 2323
13438 1.8549914505853349 1.0166873001852876 2.4846130139577887 126 71 35 0.93774011802047907 37 406 36 376 38 241 41 358 40 338 42 252
96450 2.00975413852332 0.75530066122331108 2.3767520187432862 93 79 58 1.6983906299432936 49 341 56 337 52 713 53 666 51 695 1 575 60 320 50 472 47 1399 46 1876 45 1374 57 455 54 2026 55 983 59 1395 98 3095 48 274 58 1673
3165 2.2941190216341623 0.92103140706007791 2.004661083794383 194 156 102 0.37544308285697064 20 2949 21 2961 29 2408
106930 1.8977671333294153 0.97024798955056446 2.571558588966278 50 50 50 0.22866267938538831 82 534 97 892
3166 2.2715274044775837 0.90999821464590891 2.0286596133546211 220 195 127 0.10795115784831986 21 2965 29 2370 15 2721
44672 2.6020769547724156 1.0498001071552356 2.0185352751376615 113 108 101 0.20586870085920816 6 1546 11 2286 14 2497 7 1435 2 1925 69 2260
3168 2.2362152355396869 0.91150006468954037 2.059504447405581 217 192 128 0.23789202773969498 20 1722 21 2975 29 1604
96459 1.9959115901233133 0.97335594718944507 2.3304920543904286 22 27 32 1.464552246138294 5 1570 55 572 1 904 49 1290 58 1045 12 2339 54 1279 4 2093 56 605 52 1233 59 1326 61 2370
13447 2.1757801193297452 1.0432536415284177 2.1192632562152589 175 135 78 0.34708991167765574 35 248 38 342 37 341
3179 1.8852769050613789 0.97333161917604094 2.4291078602436822 193 139 65 0.60014563626527695 20 2691 21 3023 29 3037
3191 2.2262250363462881 0.9905526771054266 2.0615131446223134 201 193 158 0.40071672027879252 29 1203 33 1527 35 3026 23 1041 87 1816 22 687 25 1228 27 2664 36 1255 39 1564 28 1550 79 1953 84 1206 97 3067 26 1553 21 3065 81 1369 31 1596 74 1480 24 1441 32 1203 34 1708 30 1111 20 2707 78 1447 75 1867 80 1744 82 2887
44697 2.4843121676489486 1.0897078452175444 1.9153849754151389 141 142 144 0.33364170884229249 19 3024 20 3799 21 3677 29 3441 31 2179 25 1325 2 2004 18 2616
85378 1.8879715493067257 0.24446133923110636 2.786272914545838 105 35 37 1.021307467987018 10 338 13 301 16 292 17 300 9 349 64 904 68 1738 73 4614 12 587 72 438 66 461 3 547 5 976 8 288 4 914 67 458
2366 2.4897905351955107 1.1176070802077647 1.9344317817438397 151 111 63 0.80872933676558123 19 2931 20 2389 6 1778 21 3331 18 1628
3194 2.2274956112116109 0.99337108235462135 2.0594962587561745 178 121 47 0.51795012653455064 35 1647 39 1638 36 2935 38 2170 87 1685 29 3098 23 1049 84 1221 22 695 26 1551 79 1138 97 1465 27 3573 28 1573 21 3073 31 1585 93 1752 74 888 24 600 33 1565 32 673 34 652 30 671 25 2961 78 3999 80 1552 75 1141 82 3002 81 1336
86206 1.899717517588148 0.60591015730273179 2.3753683005021897 0 0 0 1.9819100473950262 12 2149 16 2072
3199 2.3004445219805243 0.98453949919835337 1.9854919642261253 204 196 163 1.3341772197885744 20 2726 21 3084 76 3508
3203 2.0217296139197303 0.95352221398737547 2.2681051077826617 181 164 139 0.54236345375502926 27 2278 21 3102 29 2883 25 2762
86222 2.0447723544955116 0.80552545038978496 2.3680420569922478 117 113 112 2.0695172246461988 64 2523 71 1607 66 1619 73 3339 72 2098 68 3610 64 2702 62 1410 65 3628 73 3334
3210 2.5942237466972777 0.94375293323422094 2.0271365057107111 209 166 66 2.2714023339482896 20 1689 21 3126
3211 2.2498301367040447 0.9543685141300855 2.04140938433875 141 118 89 0.54081031150472669 23 1211 22 713 38 604 87 1538 97 1552 26 703 27 1344 79 1327 84 1383 74 1386 33 591 31 1498 34 610 28 1463 25 1619 29 1707 21 3129 24 612 30 605 35 615 36 1717 37 590 39 643 32 625 81 1522 20 3078 78 1204 75 1310 80 1956 41 674 77 1380 40 567 88 2813
106976 1.9738060859517899 0.94461666483950335 2.6313063666518293 17 13 10 1.4190173877233956 37 860 40 532 83 438 85 680
44717 2.0935112505222429 0.24430779420169052 2.8474597378590878 0 0 0 0.12747339806434826 8 2080 9 2523 13 2840 10 2605 16 2582 17 3644
3212 2.270826139835139 0.95255757107784145 2.0194114432786789 152 125 94 2.2702722158543156 28 2430 27 2272 21 3120 29 2943 39 2353 25 2833 28 1475 74 2456 79 3675 79 3448 31 2891 20 3073 25 1648 84 3334 20 3105 80 3434 80 3378 75 3072 31 2876 29 2850 36 2435 38 2809 21 3131 20 3102 40 2501 38 2825
106977 2.0773593290083245 0.80781309845466232 2.467584833951626 103 99 94 0.98536013916187581 82 507 75 791 97 440 78 828 80 827 81 417 77 789 76 664 70 1858 88 601 37 2189 74 545 79 521 87 446 93 1697 83 453 35 2557 38 2778 39 2585 84 621
3216 2.3638440288948281 0.96145376002137128 1.9287208364080455 116 109 99 0.2882142155622302 20 3130 21 3146 29 2845
3220 2.2921730906491145 0.95857679450052269 1.9961568442032438 129 107 83 1.0620605056428429 21 3156 26 2776 28 2871 20 3149
3222 2.0230326084954511 0.95546688025916637 2.2612144188572056 253 253 252 0.76254041855882537 20 3106 21 3158 25 2756 28 2904
13512 2.2494283506610104 0.95527510507605218 2.0439026071023383 195 156 97 0.27058317134255555 36 2966 38 1063 40 2436
3247 2.2007295948131911 1.1156465910270275 2.1232508597782762 57 55 52 0.22324919659713299 20 3341 21 3277 29 3211 25 2024 23 2648
107012 1.994212020571176 0.9322457366934469 2.6410521705511303 184 141 77 0.79903857264934375 40 1682 41 917 37 1016 42 607 83 607 43 628
3264 2.4815853188698473 1.1570635947456145 1.9131483549589685 89 81 72 0.70899871104583101 20 3448 21 3404 29 1645
86276 2.1007615402031212 0.95215455944662764 2.3214824324874992 192 166 120 0.044614961100858129 71 3934 66 1889 67 1391
3287 2.4958961128162391 1.0764178839957887 1.9194377708382855 145 129 105 0.43726219571930225 27 3839 21 3548 29 3528 31 2794 25 2665
44794 2.5788013308381812 1.0576750550520453 1.9948688243257626 166 128 79 1.5440159850068969 6 660 14 428 2 665 7 332 11 473 18 903 15 928 19 950 20 1307 29 1094 21 1037 27 2197 25 1084 28 1420 27 1092
86300 2.0062728321634764 0.42579712713573203 2.5179464188866754 215 189 120 0.73389934941199797 66 2159 67 2235 71 2608 72 1880
3290 2.4365177275316641 1.0677836060650872 1.8693207130642953 154 68 59 1.0763363241356976 19 905 11 797 7 613 21 1022 7 318 2 677 6 606 70 1057 25 1409 26 1239 31 1278 76 1693 14 838 15 923 18 893 20 1023 28 1348 78 3749 77 1291 81 4557 69 1315 70 2718
3292 2.097732478299736 1.087664667548512 2.2457976427534962 202 197 183 1.0336468574036572 20 3840 21 3560 29 3390
44808 2.5971818282120469 1.0745833824195483 2.0288665745056975 150 127 84 0.27378297231596699 11 2420 7 787 19 2973 2 1027 18 2939
3302 2.0835260269007425 1.0759887809195838 2.2429639303449629 98 70 46 0.41177546548219773 20 3602 21 3639 29 3517 28 2738 31 2028 26 2590 25 3332 27 3953
3303 2.1189544376333296 1.1012278134571756 2.1888215649823888 182 172 152 0.88808339673870285 20 3759 21 3644 27 3325
3329 2.1524376325478558 1.0919209119544129 2.1612713913447203 21 12 10 0.63255792994192994 21 3759 23 2725 27 3917 34 2382
3385 2.3396942148258328 0.93790923609571342 1.9882043970183516 226 224 189 2.6607902278008009 19 1646 21 1762
86397 2.0844154243452127 0.24762126030862791 2.9116529170549295 131 127 125 1.7271389933280399 13 770 9 749 10 782 9 221 8 679 68 1818 65 2000 64 933 65 232 73 206 12 1257 4 760 16 341 71 981 3 3416 5 1710 67 1693 9 2349 66 2917
3388 2.1331750456782648 0.82683722436677176 2.3100254646311313 73 64 50 0.050959281552887717 27 2860 21 2284
86401 1.9843451047340832 0.24536975126264982 2.8250960342156635 197 160 81 1.121788892692948 66 2922 3 1022 9 865 17 839 67 1002
3415 1.8472635596114226 1.0121767955798446 2.4821883363592212 219 219 216 0.92939657404550036 29 149 25 152 27 129 21 105 28 136
107180 2.0474407049493388 0.90688869972100639 2.2510693877348218 93 76 65 2.0051083769408589 34 1756 87 1278 39 2915 35 2988 88 2436 83 1265
3416 1.9759450225276678 0.84833214647844712 2.3748130800538281 0 0 0 0.79624762094908574 21 352 27 254
86428 1.9409158237605786 0.25525161790890744 2.5747932075272102 161 161 166 0.24283893104102799 68 4331 73 3853
3423 2.0260263144026065 0.85887100075606171 2.2872976584953353 251 253 247 1.7937371363147641 25 273 29 213 20 230
3429 1.9027233363107341 0.89812375432871994 2.4070799972157539 170 151 103 1.3008566587629067 21 236 29 243 25 180
3445 1.8518594662901406 0.94802257244290966 2.461740802214285 212 164 62 0.29045262843788711 25 251 29 326 27 240
3446 2.0463640983984512 0.82367873051552598 2.3253609536233686 0 0 0 0.07923600647368384 21 436 27 271
86458 2.4658667927451354 0.95581613707836599 1.8994048740304121 0 0 0 0.19361587845934206 11 2009 14 1920 18 2123 15 2275 6 1679 7 1596 2 1447 19 2335 20 3121 70 3202 69 2114
85638 1.9383995917149395 0.20094495489116393 2.6925277298220331 83 55 17 1.3467161616103003 10 567 13 1020 16 1498 66 884 17 656 64 1375 71 1189 72 895 68 1752 5 1424 8 509 9 571 73 840 4 2611
2626 2.2437839637448724 1.0142786038417475 2.2305070314493811 226 209 160 0.05638520872303595 15 2718 20 2851
3454 1.8737909621057047 0.91374004424269784 2.4619712941323746 113 96 61 0.86085742907969509 29 432 25 334 27 207
3457 1.8845193593351026 0.90424407287320419 2.4631208490309535 85 62 30 0.82282623143634404 27 294 29 446 21 237 25 270
3459 2.1557682265120444 0.95079324388140329 2.1395211548664146 222 188 94 0.45506166492791444 27 398 29 469
44981 2.5741764648451428 1.080931781305343 1.9997591582427785 162 122 65 1.1788451254994261 6 567 11 929 7 542 14 2561 2 313 76 3192
86487 2.3808596270505307 0.88795493616266719 1.9392122027857923 0 0 0 2.2685677422145218 29 1538 24 687 21 2520 26 603 74 589 79 924 20 3006 84 1674 20 1480 77 697 84 1682 87 1850 77 2793 15 1432 18 2326 19 2834 78 1152 97 2527 82 1710 15 1428 18 1188 76 2503 19 1504 97 841 20 791 21 1563 27 803 27 1584 78 1151 32 827 34 801 35 757 33 818 97 2006 14 1268 39 769 40 1434 36 753 88 2186
107240 1.9643594337029153 0.91642730423983876 2.3374987689029192 88 59 33 1.6372680980536169 33 2841 97 4525 82 2625 84 5256 34 2819 82 2620 87 4247 40 2317 83 1495
3475 2.4951190609251119 1.1384011819047315 1.8787925022708247 137 135 136 0.73851204833650497 20 540 25 575
106217 1.9254574690073565 0.94636014987067807 2.5887653351379694 0 0 0 0.40171295476021934 36 1040 38 832
85464 2.0634086626028227 0.25941410239959289 2.8658034506727401 0 0 0 0.70109687813882615 9 313 10 225 8 317 13 331 3 290 12 334 16 225 17 234 5 333
3487 2.4929818169973452 0.94249741124832331 2.164858029989694 60 57 60 1.6260616086923114 21 633 29 663 6 487
44993 2.6039848054280856 1.1395148927561567 2.0328289246630113 98 84 72 1.2158473333973192 11 1246 14 1333 7 584 2 1826
96358 1.8775512309609554 0.46275840571892896 2.7921864239281606 36 34 33 0.4635414028114182 49 2527 51 1038 53 2660 56 2447 58 1404 50 887
3491 2.2408618400133129 0.98535753651826841 2.0614867386914328 188 141 75 0.20991895388091414 27 688 29 698
85678 1.9189782673814222 0.76989066925995486 2.6533585237898167 95 74 57 0.28710379284432352 1 981 59 2030 61 2490 4 2667 54 2110 56 2673 5 2806
3494 2.0919384639001644 0.99879717850796568 2.2042299097813309 179 128 58 0.75291327940446373 20 659 29 711 25 1096 28 1006
86506 2.1083381063608964 0.21905876266647933 2.7688789373909359 167 169 154 2.0499474215793807 9 1109 9 2692 10 1050 10 2069 13 927 16 2861 13 2100 10 2072 72 2865 9 1971 8 1366 66 3296 17 3012 8 1506 13 2104 67 2870
86508 1.9510510890853614 1.0643837476931663 2.5415437733292077 34 30 26 0.86677680617213948 12 552 3 585 4 293 5 522 17 462 71 3142 66 2628 64 697 1 236 61 293 62 467 68 951 55 281 59 258 54 247 51 359 73 530 89 450 96 579 52 448 56 302 65 829 53 295 58 260 95 1675 49 300 99 551 16 928 50 502 60 824 13 966 47 1331 46 2144 10 2073 57 478 95 870 98 557 48 1433 48 1364
45002 2.5824074079046802 1.065657727150513 1.9931512878228523 85 82 75 0.56209147642930835 11 785 7 654 2 319 19 918
3496 2.139252960232493 1.0021553389298412 2.1542407757333892 177 169 149 0.62386030247480517 29 714 27 710 39 3614 78 1062 32 2622 77 689
3503 2.079157013205116 0.823526029097986 2.2647691022842884 209 204 191 0.57495428471342414 21 733 29 762 28 1242 27 774 31 1147 25 762 26 1086
3518 2.4741476445729238 1.0806382590346781 1.8956271479169351 108 106 104 0.1143991609956282 27 917 29 898 28 904
107283 2.1916629852782905 0.8128167232775062 2.3444388382510146 217 192 138 1.5186811171366981 97 3743 79 2736 80 1738 81 1666 76 1971 75 1449 19 1991 15 1941 20 2242 14 1595 11 1513 82 3789 6 1300
3543 2.244790055139227 1.0125821859319555 2.0423108050276997 176 120 48 0.24667456309658936 33 1556 35 1587 39 1254 36 1159 79 1888 38 2206 84 1539 23 1262 87 2969 24 668 22 978 34 1440 29 1114 27 2080 97 3024 28 1152 26 1104 81 1404 31 1699 74 972 32 1627 25 1136 30 1160 78 1380 75 1116 80 2408
86555 1.9181800777552351 0.7502605301147196 2.556927547850294 110 104 98 0.77563379063367099 65 1014 64 993 73 1023 68 1281 62 871 63 926 89 758 96 1062 17 1071 5 925 12 684 99 1161 16 1661 95 915 3 995 71 514 52 847 60 989 50 618 55 343 1 713 49 349 51 474 53 455 66 402 4 1289 4 399 54 275 56 351 59 234 72 901 58 313 91 812 13 1051 10 2303 47 1505 98 1894 67 1956 92 2486 57 615 48 1192 68 4030
3567 2.0800352254068488 0.99384109392340991 2.2133429908655029 214 205 157 0.58625387369031301 29 1237 25 1271 28 1693 23 1021 22 525 27 1311 31 678 93 1029 80 1934 75 1066
3569 2.0708159588136237 0.99015732757077601 2.2220749206714778 117 100 64 0.42960874231330054 20 1174 29 1259 25 1210 28 1569
107338 1.8604105904213268 0.96821962228943859 2.5224296833910334 159 77 44 0.91645956431218312 37 2891 38 3652 41 2726 40 3046 83 1884
3573 2.2529572595051577 0.99581045250177636 2.0338935861481935 202 197 168 1.664753431231629 38 1256 29 1272 23 1048 22 692 36 1191 39 726 25 1199 37 1209 84 1142 26 1579 28 1009 27 682 97 1590 21 688 31 1626 81 1414 26 1580 22 691 32 1211 33 1541 34 699 24 1435 20 1212 35 1528 87 1820 79 1099 18 596 24 666 34 1718 33 699 14 953 84 1159 97 3160 11 1776 75 1798 80 1530 75 1794 80 1516 15 1197 82 2742 77 3655 40 2615
85760 1.8888962294814535 0.5391463689357775 2.769705818609228 20 18 17 1.307922897803028 64 880 73 477 1 197 61 217 53 254 49 237 56 231 55 200 68 883 54 190 59 204 51 264 58 205 5 251 17 532 71 1209 3 360 4 199 62 328 89 318 96 597 99 311 63 472 65 866 52 213 17 533 50 290 60 367 12 539 95 555 98 407 57 268 16 901 48 462 73 861
2748 1.853811397026923 0.95129692178144165 2.4574801281474992 227 225 191 0.80076458791089478 36 1024 23 1037 32 1442 97 888 28 734 26 723 34 1057 22 1008 29 734 31 700 33 1102 84 544 87 899 74 519 24 858 25 757 27 1333 35 1055 39 1055 79 1009 37 1021 74 2125 75 1097 20 3202 21 638 80 1182 81 815 93 527 19 2566 41 2670 41 949 40 936 82 815 88 928 42 703
3576 2.2772700301227653 1.0637397527409214 2.089483464048115 166 126 73 1.2302959285477324 27 2118 29 1285
85761 1.9444071386498729 0.27993111291591943 2.563502961392504 64 57 47 1.6435308904774664 73 3591 68 4049 63 2551 95 1286 62 1827 65 1138 99 1988 96 2846 96 2848 64 4322 68 1065 73 3581 98 1919 1 1621
2749 1.902013932026537 0.9169690100050838 2.3988766070365868 120 110 95 1.1882563310728651 31 450 29 439 25 466 18 2468 26 479 21 647
3577 1.8940279036026864 1.052584380050259 2.4350973270066514 69 66 62 1.6306024871465161 38 3217 23 1812 26 2660 33 3279 37 1774 22 1184 35 3334 84 2432 28 2595 74 1935 24 1764 39 3341 30 1524 27 3619 31 2757 75 3318 33 3278 39 1856 24 1699
85763 1.9495183833469327 1.0622862329022507 2.5505824484499136 57 56 53 0.92721281469077677 17 2769 16 2500 4 2693 12 3596 61 2391 1 2189 62 2512 96 3337 13 2087 53 2486 54 1966 5 1746 51 2643 10 2105
106516 2.0909495167129117 0.81696038763182921 2.3960280485982004 223 198 133 0.83508892514685396 82 645 88 727 85 1950
2751 1.9055067558527752 0.91068168743475053 2.3930911771010073 129 116 96 1.8488456139461737 28 1898 23 467 27 668 20 2921 25 665 26 478 22 578 21 652 29 688
3579 2.4304932526029983 1.0671317636525723 1.8728348270665747 129 81 39 0.99815768285955253 29 1311 27 3820 31 2770 21 1777 23 1714 24 1377
86591 2.0159796085813504 0.38291975175923543 2.5419018008122789 186 154 99 0.28431768227029408 66 962 67 3030 64 4266 71 2860 72 1646
3586 2.4794398661141526 1.0703248578873665 1.9079278121843701 180 148 96 0.32181067102117522 20 1381 29 1361 28 3557
3598 2.1327825326807792 1.0529876657589208 2.1791434992054945 219 215 203 0.0080068514086670747 27 2553 29 1420
3602 1.9368992800375933 1.0439936509451198 2.3871608504301118 42 40 34 0.29242088032024494 21 2822 29 1436
3603 2.1176706598250608 1.0455170117353925 2.1852214489037181 184 138 78 1.1200302615057813 28 2588 23 1751 26 2576 25 1396 27 1994 31 2595 33 1040 81 4147 39 1285 36 2426 30 997
86615 2.2061608894279754 0.96426923434802003 2.3317866284641293 223 187 67 0.31952939832093119 64 2448 66 1745
45110 2.4428430206213698 1.1507838361016749 1.8728009286646461 245 196 123 1.1957728828871375 6 1074 11 1266 7 1153
3607 2.1102462612869211 0.88413281082942208 2.1942532537493009 212 180 95 0.13576790484195478 21 2356 29 1472 25 2288
3613 1.9922909613898228 0.86618388456124329 2.3307377976685908 228 202 128 1.2371166891563572 21 2534 31 1201 28 1644 29 1512 26 1636
3618 2.036961763165813 0.87566933632597121 2.2687360149732898 226 200 121 0.19649616128513206 27 1536 29 1528 25 1465
3619 2.0040082521793212 0.87167351973748053 2.3036676803018321 216 182 96 0.47211379123467628 27 1527 29 1533 28 1676 25 1477
106350 1.9125473568753057 0.88878054866674661 2.3944589290141089 0 0 0 0.76141857513116573 82 3536 88 3402 97 1164
2585 2.4721282772975188 1.0804083045143225 1.8945601253916422 101 100 98 0.34617999318555853 19 2999 27 3809 20 3880 29 3714
3620 2.0398447943401781 0.87167397025349547 2.2647305360519394 235 217 156 0.055195124097368924 21 2527 29 1539 25 1482
3633 1.935293702619989 0.8990206616754558 2.3679048141744663 144 130 102 0.33377664021486159 21 2414 29 1603 25 1538
3636 1.921114952919436 0.90334975329360445 2.4345234485050282 111 100 85 0.31977642200998391 29 1613 27 2861 25 1549 28 1738
3637 2.1735030203188259 0.91608372413401351 2.1247413363610503 223 205 145 0.026757803422054201 27 2407 29 1614
107414 1.8580612795443143 0.94471871202546764 2.5040613796707429 231 223 184 0.12583285708059661 36 3147 82 3077 42 2296 83 2164
3649 2.1580061467489497 0.96407954074535307 2.1313261844654376 170 122 76 0.66229492790461342 21 1663 29 1695 28 1600 31 683 26 1416 25 2759 78 1181
45177 2.6014454081795115 1.0556658564722707 2.0204755128761236 110 106 97 0.073326757042390847 6 1961 11 2323 7 1447
3671 2.4940189596312692 1.1264546431960076 1.943567510736298 160 144 114 2.1650140969162002 19 1104 11 1355 15 1084 20 1799 6 494 7 1115 6 1352 29 1859 25 2101 2 1706
107448 1.9006767164386325 0.96620534333090979 2.580947278468797 71 44 43 2.0851575112495904 38 1579 36 2114 37 1569 40 1756 41 1655 37 845 42 351 40 774 85 418 43 336 83 602 42 589
3683 1.9227750362134233 0.85108022108092618 2.3908621281502564 119 112 97 0.46927979947679227 27 1599 29 1915 28 1685 25 2383 31 1235
3696 2.4505868437030482 1.0875234464370331 1.8820170240017342 183 149 92 1.4233176094966673 21 2367 29 1983 11 2440 76 1625 77 3428 78 3860 19 2975 70 2735
3705 2.4367268552877701 1.0927909441898656 1.8766262347256368 108 75 64 1.2290485296092029 29 2025 28 2010 26 1981 31 2097 25 1319 76 770 81 994 27 3324 14 1006 80 2358 77 911
3709 2.4897137051759879 1.1195981275577855 1.930048991031047 178 171 145 0.60339311700047193 21 1859 29 2044 25 1995
3710 2.2515142964237804 1.1215087723904829 2.0668815822312272 42 39 34 0.36119310863817405 21 3284 29 2051
3722 2.2179212624324043 1.1123996408061625 2.1027839943659679 13 13 14 0.35351575715062511 27 3133 31 2103 26 2020 29 2088 23 2660 21 3692
86738 2.1210198613002613 0.73406386948824465 2.3965450671851709 239 229 188 0.44778367941446179 66 444 72 429 67 649
3726 2.3040560987058956 0.84818800961542806 2.0708821350389757 0 0 0 0.080521906849501515 21 2077 27 2751
3736 2.0836632218459439 0.8251152439252919 2.2515552633248164 218 214 209 1.5144053015405585 21 2193 28 1233 27 1522 29 2214 25 2149
3753 2.5590154898379058 0.91413181638717167 1.9848114928995026 183 143 96 0.021352790166005213 21 2958 29 2334
3757 1.9133758303895887 0.90408107181814013 2.3932315482268023 92 89 88 1.1034855762564475 27 2853 29 2345 28 2526 21 1716
86776 2.0773603130621838 0.76464031586478298 2.3794081333359931 219 198 129 0.62056394107407875 66 708 71 464 72 684 67 645
3765 2.4965898969157503 1.095452155604834 1.9238938344162064 154 152 154 0.3304360848499292 27 3343 29 2392 25 3321
3767 2.0498127392262582 1.0732463420829532 2.2745935267258961 227 223 213 0.079254133966809456 21 3581 29 2401 25 3527
45280 2.5747813006037461 1.1418447929113125 1.9939787785652094 179 172 160 1.2706826499076167 6 1815 11 704 7 1762
3774 1.9112653834281754 0.91320425950572448 2.3925763480517106 81 78 81 0.97128751006232206 21 2959 29 2432 28 1761
45282 2.5948546659340117 1.0890229065407915 2.0249948430784364 148 114 72 1.6471185219883482 7 1767 6 1943 18 2558 14 2296 29 2020 25 1326 28 2721 2 1777 27 879
3783 1.981441725573726 0.85967348942044763 2.333907826988932 237 221 165 0.94707587535885795 28 1713 29 2484 31 2474 27 3084 25 2455
85969 2.0436486310231885 0.72138910822352176 2.3903082081698099 195 167 115 0.20226398761233341 71 2463 66 587 64 2740
3785 2.0584230263348822 0.88219346927018949 2.2493661633918332 215 181 96 0.47838420288314953 27 3015 29 2495 25 1583
3786 2.084534643325473 0.88472414049828263 2.2369607153334421 222 195 113 0.5965952087824834 21 2361 27 2976 29 2500
3794 2.0168232349285358 0.87148947493506435 2.2897974228294271 227 200 125 0.12156438994299819 27 2959 29 2529 25 2436
107559 2.1795386700475183 0.8380066877433453 2.373873481462649 193 175 138 0.35146189642604747 91 27 86 35 94 28
45300 2.4971042768367764 1.1243546462790037 1.9274611233940075 0 0 0 1.8271442842361594 2 1717 11 2117 7 1839
107560 1.8886669988961675 0.32040394124177762 2.7532691173898094 219 212 176 1.3683427772550054 91 18 86 42 94 26
45301 2.4850726314382738 1.1267368040076542 1.933654366582352 131 105 69 1.00254655448844 14 2415 15 1085 19 3124 20 3317 6 1762 7 1841 20 1802 2 1718 18 2749 29 3138
3796 2.054656591215172 0.87488824368977336 2.2516512490295457 229 207 140 0.12915074790445755 21 2498 29 2533 25 2443
107561 2.0173298512753943 0.39758365268272333 2.5300591973413229 228 227 225 0.23590434477047326 91 36 86 48 94 40
3797 2.0326099905899198 0.87464142085647756 2.2718214245226922 224 198 116 0.049285045359355073 27 1816 29 2535 25 2445
107562 1.9723829362511616 0.2722062421038321 2.5811723175574395 207 177 110 0.2101751269265745 91 51 86 57 94 49
86809 1.895737737236266 0.4299442197070415 2.6346447431992348 0 0 0 2.1086089198800919 9 1466 65 518 10 1503 72 861 67 793
3798 2.0594581055606298 0.87594026276395198 2.2438702200291729 224 198 121 0.13898429251396105 21 2505 29 2536 25 2444
107563 2.0906949542160689 0.4138484446417468 2.5630187161854834 175 140 88 0.082448517358048978 63 73 86 62
107581 2.2589261103356777 1.0731058788230516 2.4144039477222603 100 75 44 0.82921892312198942 91 187 86 134 94 122
45322 2.4321635882427457 1.0661465689559322 1.8659146255866037 149 108 64 1.6086881706969223 11 2296 14 2456 14 2503 20 1309 29 2397 28 3555 7 922 15 919 18 1045 21 2385 27 3999 19 948 78 3634
3816 1.903133582472994 1.0207116610103624 2.4125624944466781 22 22 22 1.2714612892805761 27 2572 29 2625 20 1077 25 1181
45326 2.5858389831589212 1.0157002889902567 2.0388577092158604 112 83 43 0.5753898519152677 7 1606 6 2016
45327 2.5815103834430957 1.0737658093876261 1.9990885769161877 97 75 44 2.0680482152173001 11 944 6 1924 2 2032 2 1004 7 791 20 3867 70 987 18 2926
3828 1.9810615694001752 1.0594340554432284 2.3543130877218696 207 202 187 0.43043349204049258 21 2714 27 3659 29 2713
107593 2.1399881588518217 1.1351683836567454 2.3952478880197425 214 186 82 0.8206694478809764 63 586 86 221 94 295
3830 2.0026458773372253 1.0677315183659495 2.3334862410651942 190 184 167 0.84156190056909297 21 2760 27 3919 29 2727
107595 2.2200100799112019 1.094469856111757 2.3989480030533108 60 48 36 0.26383436626802076 91 173 86 232 94 212
3833 2.027810176088745 1.0649403063752756 2.2973982354284739 93 65 44 0.33906674737002201 28 2788 31 2735 26 2697 25 2676 27 3650 29 2744
45339 2.4929986476632071 1.118941335421368 1.9338276034646951 179 174 148 1.1364249142068563 20 1865 15 1054 19 1077 11 1333 6 1120 7 1133 2 601 6 1121 18 1478 21 949 29 965 25 900 27 968
107598 1.9017193983450238 0.40533523723407389 2.6354820383322752 226 219 184 0.29621957501117696 91 254 86 245 94 227
86859 2.1274093037072808 0.71945255062382651 2.3995126539137823 186 153 102 0.42374709550908835 66 1620 72 1254 67 652
107612 2.0071329057117238 1.0165324160838269 2.3446162740717575 34 29 22 0.83346797242964388 91 621 86 320
3847 1.9784726318714985 1.0581896206824626 2.3370857749785645 218 215 201 0.56957686508208427 21 2742 27 3656 29 2808
107617 2.0671899140218253 0.94637724462822082 2.319030849889721 222 220 219 0.10952866748835954 91 280 86 348 94 267
3852 2.1052598044747457 0.95282853391751876 2.1928004698616679 63 59 53 0.46233674916990453 21 1626 29 2837
3856 2.2527839540538253 0.95452328957188215 2.0383309559675982 168 139 99 0.64384996974149278 23 1210 22 1845 34 1633 36 1714 87 3470 26 1454 28 2887 27 2274 79 3417 84 3750 31 1922 74 2281 33 1823 25 2879 29 2854 24 966 39 1508 30 1310 32 1244 35 1548 78 4059 80 3380 82 2832
107621 2.1947664739339565 0.99304457152245429 2.3307338547125362 245 209 90 0.2313515218783336 91 1663 86 369
3867 2.2869723493692034 0.9637646459135919 2.0035409903487604 195 160 108 0.98885378935278923 23 691 22 1882 38 2270 87 3124 79 1393 84 3330 21 3151 74 1414 34 449 28 2908 31 2906 24 616 39 1956 36 1707 30 606 35 1555 39 2358 25 2775 29 2891 35 465 37 1115 35 654 78 3994 75 3126 80 3251
107632 1.9172476013158464 0.38925441163259655 2.5919734145537485 199 151 63 2.0658585286054079 65 1033 73 1022 86 521 94 571
3871 1.9042073983634784 0.92953736083536154 2.3961125221788895 120 107 96 1.4898733847618753 36 1435 28 2339 79 3039 22 3071 24 1953 33 1578 34 2898 29 2908 35 1013 21 2905 23 2257 26 2766 74 2343 93 3839 30 2139 78 3346 80 3584 75 2205 38 3503 39 1030 77 2400 87 4333 15 3314
107636 2.0173836557363272 1.0007986556364563 2.3207429418485002 40 35 37 0.52944243975757788 91 604 86 570 94 674
107641 2.0722147611138007 0.33721045410867728 2.5416278727915391 236 232 221 0.40809451417101589 65 2718 86 669 94 637
3876 2.0452047037687335 0.927953155504743 2.5174543071738391 68 68 68 0.13346126868093156 20 1767 29 2954
107642 2.1044439063947777 1.0784165332540501 2.390868185709504 102 75 37 0.22192363840618698 91 456 86 674 94 1551
3877 2.1524567343291094 0.94398644715340263 2.1341745216768442 103 95 83 0.81393056219556981 19 1649 29 2955 11 522
107646 1.9860455112959439 0.47150123497585744 2.3013336998208471 207 172 107 0.88481736534721522 89 74 86 700
3881 2.2371105852086788 1.0028242965884129 2.0498991706090131 200 198 169 0.31717929765723485 29 2974 33 1489 35 1674 39 1795 38 2235 23 1013 22 1013 34 1472 27 2023 28 1108 36 3105 79 1976 26 1562 81 1416 31 1576 74 1301 24 883 25 1239 32 693 30 968 20 2583 77 1349 78 4142 75 1161 80 1618
3884 2.2407783477270176 1.0037849762112012 2.0461986544808068 196 184 141 0.31428631657580369 29 2983 33 3219 35 2918 39 2878 36 2922 23 1247 20 2588 79 1978 84 3578 87 1682 24 1387 22 1941 34 1483 27 2466 26 1838 28 3038 31 1898 81 4430 74 1300 32 1633 30 1054 80 3465 75 3226
107649 2.0086082087748527 0.42576748612395826 2.521235079386047 0 0 0 0.87121698856826291 73 665 63 547 64 679 65 1710 68 677 71 724 89 1237 96 664 99 814 72 525 9 418 10 345 13 364 67 523 8 394
107650 2.0212028239717599 0.937528201448666 2.3202621320124126 148 139 128 1.0011361013778344 62 1396 63 1604 68 1389 91 1034 95 1789 96 1105 99 1279 53 1639 56 1543 64 1770 73 1420 3 751 66 727 71 1769 49 1578 72 1403 5 723 65 3711 58 1710 98 4096 17 1871 55 1592 67 1301 46 1969 47 1423 90 813 86 745 12 2039 94 668 54 1486 45 1704
3885 2.2239679453247723 0.99886935935777244 2.0634569315960922 184 137 62 0.31637573027418342 29 2986 33 1484 35 1670 39 2871 36 3102 38 2195 23 1017 84 1531 87 4740 22 1009 27 2653 26 1503 28 1107 79 1967 97 3344 31 1553 81 1341 74 1310 24 1401 25 3002 32 1666 34 1487 93 1751 30 1059 78 3967 80 1517 75 1782
107652 2.0089134593065796 0.99144475902131091 2.3247370955543039 189 154 95 1.1942019410338978 63 3034 91 1124 86 762
3887 2.2549475200951719 1.0046824625439148 2.0315738752531942 178 117 45 0.38397303776105324 34 1730 33 1549 35 1639 39 1497 24 1394 79 1946 22 1893 32 1664 25 2890 27 2469 29 2994 26 1425 28 2426 31 1572 84 1239 30 1038 75 1868
107653 2.0015593691034206 0.67909452354458044 2.3701692391736726 210 173 108 0.00068648884862067511 89 1963 86 764
3888 1.9696623054942863 0.99193201348201487 2.4346846792981185 176 165 144 0.56261261014644959 29 2997 28 3007
45413 2.5984613920536757 1.0011941447791957 2.018762712617864 0 0 0 2.1170004839366072 20 2638 19 3388 14 1940 11 1805 15 2342 18 2194 25 2908 2 1962 27 2048 81 1513
3907 2.2375506002302377 0.99833514117251543 2.0491614261228461 201 194 158 1.013489826994181 23 1060 34 657 22 998 26 1565 27 2646 35 1635 97 3053 31 1609 81 1351 93 678 29 3085 74 1291 33 1547 32 680 39 1549 25 3011 30 696 75 1781 80 1529
107672 2.1872056978626002 0.81952427101029401 2.3880636948407652 132 123 112 1.5331483004403623 63 1403 91 1051 86 922 94 1023
107691 1.9185508676043219 0.48255803379821832 2.571328535427083 192 194 199 0.38067598378935291 91 2370 86 1091 94 1043
45432 2.4571687921792233 1.1305295195742724 1.8770377702883299 61 59 53 0.7516849216808863 29 1888 81 3792 76 3648 6 1159 7 1120 11 1356 14 1342 15 1081 18 1450 19 1560 20 1828 21 1788 25 2011 27 1898 28 1866 31 2074 2 982 76 1453 81 1750 70 3181 77 1836 78 2105 80 3910
3926 2.1836139789718612 1.1174096117959598 2.1366829735306001 76 73 69 0.90267008660776171 28 3460 31 3126 25 3098 27 3154 29 3179
